-0.0905799 -0.303797 -0.303797 2 2 1
-0.0909164 -0.303916 -0.303916 2 2 1
-0.0912527 -0.304034 -0.304034 2 2 1
-0.0915889 -0.304153 -0.304153 2 2 1
-0.091925 -0.304272 -0.304272 2 2 1
-0.0922609 -0.30439 -0.30439 2 2 1
-0.0925967 -0.304509 -0.304509 2 2 1
-0.0929324 -0.304627 -0.304627 2 2 1
-0.093268 -0.304745 -0.304745 2 2 1
-0.0936034 -0.304864 -0.304864 2 2 1
-0.0939387 -0.304982 -0.304982 2 2 1
-0.0942739 -0.3051 -0.3051 2 2 1
-0.094609 -0.305218 -0.305218 2 2 1
-0.0949439 -0.305336 -0.305336 2 2 1
-0.0952787 -0.305455 -0.305455 2 2 1
-0.0956134 -0.305573 -0.305573 2 2 1
-0.0959479 -0.305691 -0.305691 2 2 1
-0.0962824 -0.305809 -0.305809 2 2 1
-0.0966167 -0.305926 -0.305926 2 2 1
-0.0969508 -0.306044 -0.306044 2 2 1
-0.0972849 -0.306162 -0.306162 2 2 1
-0.0976188 -0.30628 -0.30628 2 2 1
-0.0979526 -0.306398 -0.306398 2 2 1
-0.0982863 -0.306515 -0.306515 2 2 1
-0.0986198 -0.306633 -0.306633 2 2 1
-0.0989532 -0.306751 -0.306751 2 2 1
-0.0992865 -0.306868 -0.306868 2 2 1
-0.0996197 -0.306986 -0.306986 2 2 1
-0.0999527 -0.307103 -0.307103 2 2 1
-0.100286 -0.307221 -0.307221 2 2 1
0.487207 -0.1 -0.1 2 2 1
0.487445 -0.0999161 -0.0999161 2 2 1
0.487681 -0.099833 -0.099833 2 2 1
0.488154 -0.0996661 -0.0996661 2 2 1
0.488745 -0.0994575 -0.0994575 2 2 1
0.489337 -0.0992487 -0.0992487 2 2 1
0.489929 -0.0990399 -0.0990399 2 2 1
0.490522 -0.0988309 -0.0988309 2 2 1
0.491115 -0.0986218 -0.0986218 2 2 1
0.491708 -0.0984126 -0.0984126 2 2 1
0.492301 -0.0982033 -0.0982033 2 2 1
0.492895 -0.0979939 -0.0979939 2 2 1
0.493489 -0.0977843 -0.0977843 2 2 1
0.494083 -0.0975747 -0.0975747 2 2 1
0.494678 -0.097365 -0.097365 2 2 1
0.495273 -0.0971552 -0.0971552 2 2 1
0.495868 -0.0969452 -0.0969452 2 2 1
0.496463 -0.0967352 -0.0967352 2 2 1
0.497059 -0.096525 -0.096525 2 2 1
0.497655 -0.0963148 -0.0963148 2 2 1
0.498252 -0.0961044 -0.0961044 2 2 1
0.498848 -0.095894 -0.095894 2 2 1
0.499445 -0.0956834 -0.0956834 2 2 1
0.500043 -0.0954727 -0.0954727 2 2 1
0.50064 -0.0952619 -0.0952619 2 2 1
0.501238 -0.095051 -0.095051 2 2 1
0.501836 -0.09484 -0.09484 2 2 1
0.502435 -0.0946289 -0.0946289 2 2 1
0.503034 -0.0944177 -0.0944177 2 2 1
0.503633 -0.0942064 -0.0942064 2 2 1
0.504232 -0.093995 -0.093995 2 2 1
0.504832 -0.0937834 -0.0937834 2 2 1
0.505432 -0.0935718 -0.0935718 2 2 1
0.506032 -0.09336 -0.09336 2 2 1
0.506633 -0.0931482 -0.0931482 2 2 1
0.507234 -0.0929362 -0.0929362 2 2 1
0.507835 -0.0927242 -0.0927242 2 2 1
0.508437 -0.092512 -0.092512 2 2 1
0.509039 -0.0922997 -0.0922997 2 2 1
0.509641 -0.0920873 -0.0920873 2 2 1
0.510243 -0.0918748 -0.0918748 2 2 1
0.510846 -0.0916622 -0.0916622 2 2 1
0.511449 -0.0914495 -0.0914495 2 2 1
0.512052 -0.0912367 -0.0912367 2 2 1
0.512656 -0.0910237 -0.0910237 2 2 1
0.51326 -0.0908107 -0.0908107 2 2 1
0.513864 -0.0905976 -0.0905976 2 2 1
0.514469 -0.0903843 -0.0903843 2 2 1
0.515074 -0.0901709 -0.0901709 2 2 1
0.515679 -0.0899575 -0.0899575 2 2 1
0.516285 -0.0897439 -0.0897439 2 2 1
0.51689 -0.0895302 -0.0895302 2 2 1
0.517497 -0.0893164 -0.0893164 2 2 1
0.518103 -0.0891025 -0.0891025 2 2 1
0.51871 -0.0888885 -0.0888885 2 2 1
0.519317 -0.0886744 -0.0886744 2 2 1
0.519924 -0.0884601 -0.0884601 2 2 1
0.520532 -0.0882458 -0.0882458 2 2 1
0.52114 -0.0880313 -0.0880313 2 2 1
0.521748 -0.0878168 -0.0878168 2 2 1
0.522357 -0.0876021 -0.0876021 2 2 1
0.522966 -0.0873873 -0.0873873 2 2 1
0.523575 -0.0871724 -0.0871724 2 2 1
0.524184 -0.0869574 -0.0869574 2 2 1
0.524794 -0.0867423 -0.0867423 2 2 1
0.525404 -0.0865271 -0.0865271 2 2 1
0.526015 -0.0863118 -0.0863118 2 2 1
0.526626 -0.0860963 -0.0860963 2 2 1
0.527237 -0.0858808 -0.0858808 2 2 1
0.527848 -0.0856651 -0.0856651 2 2 1
0.52846 -0.0854494 -0.0854494 2 2 1
0.529072 -0.0852335 -0.0852335 2 2 1
0.529684 -0.0850175 -0.0850175 2 2 1
0.530297 -0.0848014 -0.0848014 2 2 1
0.53091 -0.0845852 -0.0845852 2 2 1
0.531523 -0.0843689 -0.0843689 2 2 1
0.532137 -0.0841525 -0.0841525 2 2 1
0.532751 -0.0839359 -0.0839359 2 2 1
0.533365 -0.0837193 -0.0837193 2 2 1
0.53398 -0.0835025 -0.0835025 2 2 1
0.534594 -0.0832856 -0.0832856 2 2 1
0.53521 -0.0830686 -0.0830686 2 2 1
0.535825 -0.0828515 -0.0828515 2 2 1
0.536441 -0.0826343 -0.0826343 2 2 1
0.537057 -0.082417 -0.082417 2 2 1
0.537673 -0.0821996 -0.0821996 2 2 1
0.53829 -0.0819821 -0.0819821 2 2 1
0.538907 -0.0817644 -0.0817644 2 2 1
0.539525 -0.0815466 -0.0815466 2 2 1
0.540142 -0.0813288 -0.0813288 2 2 1
0.54076 -0.0811108 -0.0811108 2 2 1
0.541379 -0.0808927 -0.0808927 2 2 1
0.541997 -0.0806745 -0.0806745 2 2 1
0.542616 -0.0804561 -0.0804561 2 2 1
0.543236 -0.0802377 -0.0802377 2 2 1
0.543855 -0.0800191 -0.0800191 2 2 1
0.544475 -0.0798005 -0.0798005 2 2 1
0.545095 -0.0795817 -0.0795817 2 2 1
0.545716 -0.0793628 -0.0793628 2 2 1
0.546337 -0.0791438 -0.0791438 2 2 1
0.546958 -0.0789247 -0.0789247 2 2 1
0.54758 -0.0787055 -0.0787055 2 2 1
0.548201 -0.0784862 -0.0784862 2 2 1
0.548824 -0.0782667 -0.0782667 2 2 1
0.549446 -0.0780471 -0.0780471 2 2 1
0.550069 -0.0778275 -0.0778275 2 2 1
0.550692 -0.0776077 -0.0776077 2 2 1
0.551315 -0.0773878 -0.0773878 2 2 1
0.551939 -0.0771678 -0.0771678 2 2 1
0.552563 -0.0769476 -0.0769476 2 2 1
0.553188 -0.0767274 -0.0767274 2 2 1
0.553812 -0.076507 -0.076507 2 2 1
0.554438 -0.0762866 -0.0762866 2 2 1
0.555063 -0.076066 -0.076066 2 2 1
0.555689 -0.0758453 -0.0758453 2 2 1
0.556315 -0.0756245 -0.0756245 2 2 1
0.556941 -0.0754035 -0.0754035 2 2 1
0.557568 -0.0751825 -0.0751825 2 2 1
0.558195 -0.0749613 -0.0749613 2 2 1
0.558822 -0.0747401 -0.0747401 2 2 1
0.55945 -0.0745187 -0.0745187 2 2 1
0.560078 -0.0742972 -0.0742972 2 2 1
0.560706 -0.0740756 -0.0740756 2 2 1
0.561335 -0.0738538 -0.0738538 2 2 1
0.561963 -0.073632 -0.073632 2 2 1
0.562593 -0.07341 -0.07341 2 2 1
0.563222 -0.073188 -0.073188 2 2 1
0.563852 -0.0729658 -0.0729658 2 2 1
0.564483 -0.0727435 -0.0727435 2 2 1
0.565113 -0.0725211 -0.0725211 2 2 1
0.565744 -0.0722985 -0.0722985 2 2 1
0.566375 -0.0720759 -0.0720759 2 2 1
0.567007 -0.0718531 -0.0718531 2 2 1
0.567639 -0.0716302 -0.0716302 2 2 1
0.568271 -0.0714072 -0.0714072 2 2 1
0.568903 -0.0711841 -0.0711841 2 2 1
0.569536 -0.0709609 -0.0709609 2 2 1
0.57017 -0.0707376 -0.0707376 2 2 1
0.570803 -0.0705141 -0.0705141 2 2 1
0.571437 -0.0702905 -0.0702905 2 2 1
0.572071 -0.0700668 -0.0700668 2 2 1
0.572706 -0.069843 -0.069843 2 2 1
0.57334 -0.0696191 -0.0696191 2 2 1
0.573976 -0.0693951 -0.0693951 2 2 1
0.574611 -0.0691709 -0.0691709 2 2 1
0.575247 -0.0689466 -0.0689466 2 2 1
0.575883 -0.0687222 -0.0687222 2 2 1
0.57652 -0.0684977 -0.0684977 2 2 1
0.577157 -0.0682731 -0.0682731 2 2 1
0.577794 -0.0680484 -0.0680484 2 2 1
0.578431 -0.0678235 -0.0678235 2 2 1
0.579069 -0.0675985 -0.0675985 2 2 1
0.579707 -0.0673734 -0.0673734 2 2 1
0.580346 -0.0671482 -0.0671482 2 2 1
0.580985 -0.0669229 -0.0669229 2 2 1
0.581624 -0.0666974 -0.0666974 2 2 1
0.582263 -0.0664719 -0.0664719 2 2 1
0.582903 -0.0662462 -0.0662462 2 2 1
0.583543 -0.0660204 -0.0660204 2 2 1
0.584184 -0.0657945 -0.0657945 2 2 1
0.584825 -0.0655684 -0.0655684 2 2 1
0.585466 -0.0653423 -0.0653423 2 2 1
0.586107 -0.065116 -0.065116 2 2 1
0.586749 -0.0648896 -0.0648896 2 2 1
0.587391 -0.0646631 -0.0646631 2 2 1
0.588034 -0.0644365 -0.0644365 2 2 1
0.588677 -0.0642097 -0.0642097 2 2 1
0.58932 -0.0639829 -0.0639829 2 2 1
0.589963 -0.0637559 -0.0637559 2 2 1
0.590607 -0.0635288 -0.0635288 2 2 1
0.591251 -0.0633015 -0.0633015 2 2 1
0.591896 -0.0630742 -0.0630742 2 2 1
0.592541 -0.0628467 -0.0628467 2 2 1
0.593186 -0.0626192 -0.0626192 2 2 1
0.593832 -0.0623915 -0.0623915 2 2 1
0.594478 -0.0621636 -0.0621636 2 2 1
0.595124 -0.0619357 -0.0619357 2 2 1
0.59577 -0.0617076 -0.0617076 2 2 1
0.596417 -0.0614795 -0.0614795 2 2 1
0.597065 -0.0612512 -0.0612512 2 2 1
0.597712 -0.0610227 -0.0610227 2 2 1
0.59836 -0.0607942 -0.0607942 2 2 1
0.599008 -0.0605655 -0.0605655 2 2 1
0.599657 -0.0603368 -0.0603368 2 2 1
0.600306 -0.0601079 -0.0601079 2 2 1
0.600955 -0.0598788 -0.0598788 2 2 1
0.601605 -0.0596497 -0.0596497 2 2 1
0.602255 -0.0594204 -0.0594204 2 2 1
0.602905 -0.0591911 -0.0591911 2 2 1
0.603556 -0.0589616 -0.0589616 2 2 1
0.604207 -0.0587319 -0.0587319 2 2 1
0.604858 -0.0585022 -0.0585022 2 2 1
0.60551 -0.0582723 -0.0582723 2 2 1
0.606162 -0.0580423 -0.0580423 2 2 1
0.606814 -0.0578122 -0.0578122 2 2 1
0.607467 -0.057582 -0.057582 2 2 1
0.60812 -0.0573516 -0.0573516 2 2 1
0.608773 -0.0571212 -0.0571212 2 2 1
0.609427 -0.0568906 -0.0568906 2 2 1
0.610081 -0.0566599 -0.0566599 2 2 1
0.610736 -0.056429 -0.056429 2 2 1
0.611391 -0.0561981 -0.0561981 2 2 1
0.612046 -0.055967 -0.055967 2 2 1
0.612701 -0.0557358 -0.0557358 2 2 1
0.613357 -0.0555045 -0.0555045 2 2 1
0.614013 -0.055273 -0.055273 2 2 1
0.61467 -0.0550414 -0.0550414 2 2 1
0.615327 -0.0548097 -0.0548097 2 2 1
0.615984 -0.0545779 -0.0545779 2 2 1
0.616641 -0.054346 -0.054346 2 2 1
0.617299 -0.0541139 -0.0541139 2 2 1
0.617958 -0.0538817 -0.0538817 2 2 1
0.618616 -0.0536494 -0.0536494 2 2 1
0.619275 -0.053417 -0.053417 2 2 1
0.619935 -0.0531844 -0.0531844 2 2 1
0.620594 -0.0529518 -0.0529518 2 2 1
0.621254 -0.052719 -0.052719 2 2 1
0.621915 -0.052486 -0.052486 2 2 1
0.622575 -0.052253 -0.052253 2 2 1
0.623236 -0.0520198 -0.0520198 2 2 1
0.623898 -0.0517865 -0.0517865 2 2 1
0.62456 -0.0515531 -0.0515531 2 2 1
0.625222 -0.0513195 -0.0513195 2 2 1
0.625884 -0.0510859 -0.0510859 2 2 1
0.626547 -0.0508521 -0.0508521 2 2 1
0.62721 -0.0506182 -0.0506182 2 2 1
0.627874 -0.0503841 -0.0503841 2 2 1
0.628538 -0.05015 -0.05015 2 2 1
0.629202 -0.0499157 -0.0499157 2 2 1
0.629866 -0.0496813 -0.0496813 2 2 1
0.630531 -0.0494467 -0.0494467 2 2 1
0.631197 -0.0492121 -0.0492121 2 2 1
0.631862 -0.0489773 -0.0489773 2 2 1
0.632528 -0.0487423 -0.0487423 2 2 1
0.633195 -0.0485073 -0.0485073 2 2 1
0.633861 -0.0482721 -0.0482721 2 2 1
0.634529 -0.0480368 -0.0480368 2 2 1
0.635196 -0.0478014 -0.0478014 2 2 1
0.635864 -0.0475659 -0.0475659 2 2 1
0.636532 -0.0473302 -0.0473302 2 2 1
0.6372 -0.0470944 -0.0470944 2 2 1
0.637869 -0.0468585 -0.0468585 2 2 1
0.638538 -0.0466225 -0.0466225 2 2 1
0.639208 -0.0463863 -0.0463863 2 2 1
0.639878 -0.04615 -0.04615 2 2 1
0.640548 -0.0459136 -0.0459136 2 2 1
0.641219 -0.045677 -0.045677 2 2 1
0.64189 -0.0454403 -0.0454403 2 2 1
0.642561 -0.0452035 -0.0452035 2 2 1
0.643233 -0.0449666 -0.0449666 2 2 1
0.643905 -0.0447295 -0.0447295 2 2 1
0.644578 -0.0444924 -0.0444924 2 2 1
0.64525 -0.044255 -0.044255 2 2 1
0.645924 -0.0440176 -0.0440176 2 2 1
0.646597 -0.04378 -0.04378 2 2 1
0.647271 -0.0435424 -0.0435424 2 2 1
0.647945 -0.0433045 -0.0433045 2 2 1
0.64862 -0.0430666 -0.0430666 2 2 1
0.649295 -0.0428285 -0.0428285 2 2 1
0.64997 -0.0425903 -0.0425903 2 2 1
0.650646 -0.042352 -0.042352 2 2 1
0.651322 -0.0421135 -0.0421135 2 2 1
0.651998 -0.0418749 -0.0418749 2 2 1
0.652675 -0.0416362 -0.0416362 2 2 1
0.653352 -0.0413974 -0.0413974 2 2 1
0.65403 -0.0411584 -0.0411584 2 2 1
0.654708 -0.0409193 -0.0409193 2 2 1
0.655386 -0.0406801 -0.0406801 2 2 1
0.656064 -0.0404407 -0.0404407 2 2 1
0.656743 -0.0402012 -0.0402012 2 2 1
0.657423 -0.0399616 -0.0399616 2 2 1
0.658102 -0.0397218 -0.0397218 2 2 1
0.658783 -0.039482 -0.039482 2 2 1
0.659463 -0.039242 -0.039242 2 2 1
0.660144 -0.0390018 -0.0390018 2 2 1
0.660825 -0.0387616 -0.0387616 2 2 1
0.661506 -0.0385212 -0.0385212 2 2 1
0.662188 -0.0382807 -0.0382807 2 2 1
0.662871 -0.03804 -0.03804 2 2 1
0.663553 -0.0377992 -0.0377992 2 2 1
0.664236 -0.0375583 -0.0375583 2 2 1
0.66492 -0.0373173 -0.0373173 2 2 1
0.665603 -0.0370761 -0.0370761 2 2 1
0.666288 -0.0368348 -0.0368348 2 2 1
0.666972 -0.0365934 -0.0365934 2 2 1
0.667657 -0.0363518 -0.0363518 2 2 1
0.668342 -0.0361101 -0.0361101 2 2 1
0.669028 -0.0358683 -0.0358683 2 2 1
0.669714 -0.0356263 -0.0356263 2 2 1
0.6704 -0.0353843 -0.0353843 2 2 1
0.671087 -0.035142 -0.035142 2 2 1
0.671774 -0.0348997 -0.0348997 2 2 1
0.672461 -0.0346572 -0.0346572 2 2 1
0.673149 -0.0344146 -0.0344146 2 2 1
0.673837 -0.0341719 -0.0341719 2 2 1
0.674526 -0.033929 -0.033929 2 2 1
0.675215 -0.033686 -0.033686 2 2 1
0.675904 -0.0334428 -0.0334428 2 2 1
0.676594 -0.0331996 -0.0331996 2 2 1
0.677284 -0.0329562 -0.0329562 2 2 1
0.677974 -0.0327126 -0.0327126 2 2 1
0.678665 -0.032469 -0.032469 2 2 1
0.679356 -0.0322252 -0.0322252 2 2 1
0.680048 -0.0319813 -0.0319813 2 2 1
0.68074 -0.0317372 -0.0317372 2 2 1
0.681432 -0.031493 -0.031493 2 2 1
0.682125 -0.0312487 -0.0312487 2 2 1
0.682818 -0.0310042 -0.0310042 2 2 1
0.683511 -0.0307596 -0.0307596 2 2 1
0.684205 -0.0305149 -0.0305149 2 2 1
0.684899 -0.03027 -0.03027 2 2 1
0.685594 -0.030025 -0.030025 2 2 1
0.686289 -0.0297799 -0.0297799 2 2 1
0.686984 -0.0295347 -0.0295347 2 2 1
0.68768 -0.0292893 -0.0292893 2 2 1
0.688376 -0.0290437 -0.0290437 2 2 1
0.689073 -0.0287981 -0.0287981 2 2 1
0.689769 -0.0285523 -0.0285523 2 2 1
0.690467 -0.0283064 -0.0283064 2 2 1
0.691164 -0.0280603 -0.0280603 2 2 1
0.691862 -0.0278141 -0.0278141 2 2 1
0.692561 -0.0275678 -0.0275678 2 2 1
0.693259 -0.0273213 -0.0273213 2 2 1
0.693958 -0.0270747 -0.0270747 2 2 1
0.694658 -0.026828 -0.026828 2 2 1
0.695358 -0.0265811 -0.0265811 2 2 1
0.696058 -0.0263341 -0.0263341 2 2 1
0.696759 -0.026087 -0.026087 2 2 1
0.69746 -0.0258397 -0.0258397 2 2 1
0.698161 -0.0255923 -0.0255923 2 2 1
0.698863 -0.0253447 -0.0253447 2 2 1
0.699565 -0.0250971 -0.0250971 2 2 1
0.700268 -0.0248492 -0.0248492 2 2 1
0.700971 -0.0246013 -0.0246013 2 2 1
0.701674 -0.0243532 -0.0243532 2 2 1
0.702378 -0.024105 -0.024105 2 2 1
0.703082 -0.0238566 -0.0238566 2 2 1
0.703787 -0.0236081 -0.0236081 2 2 1
0.704492 -0.0233595 -0.0233595 2 2 1
0.705197 -0.0231107 -0.0231107 2 2 1
0.705903 -0.0228618 -0.0228618 2 2 1
0.706609 -0.0226128 -0.0226128 2 2 1
0.707315 -0.0223636 -0.0223636 2 2 1
0.708022 -0.0221143 -0.0221143 2 2 1
0.708729 -0.0218648 -0.0218648 2 2 1
0.709437 -0.0216152 -0.0216152 2 2 1
0.710145 -0.0213655 -0.0213655 2 2 1
0.710853 -0.0211157 -0.0211157 2 2 1
0.711562 -0.0208657 -0.0208657 2 2 1
0.712271 -0.0206155 -0.0206155 2 2 1
0.712981 -0.0203652 -0.0203652 2 2 1
0.713691 -0.0201148 -0.0201148 2 2 1
0.714401 -0.0198643 -0.0198643 2 2 1
0.715112 -0.0196136 -0.0196136 2 2 1
0.715823 -0.0193628 -0.0193628 2 2 1
0.716534 -0.0191118 -0.0191118 2 2 1
0.717246 -0.0188607 -0.0188607 2 2 1
0.717958 -0.0186095 -0.0186095 2 2 1
0.718671 -0.0183581 -0.0183581 2 2 1
0.719384 -0.0181066 -0.0181066 2 2 1
0.720098 -0.0178549 -0.0178549 2 2 1
0.720812 -0.0176031 -0.0176031 2 2 1
0.721526 -0.0173512 -0.0173512 2 2 1
0.72224 -0.0170991 -0.0170991 2 2 1
0.722956 -0.0168469 -0.0168469 2 2 1
0.723671 -0.0165945 -0.0165945 2 2 1
0.724387 -0.016342 -0.016342 2 2 1
0.725103 -0.0160894 -0.0160894 2 2 1
0.72582 -0.0158366 -0.0158366 2 2 1
0.726537 -0.0155837 -0.0155837 2 2 1
0.727254 -0.0153307 -0.0153307 2 2 1
0.727972 -0.0150775 -0.0150775 2 2 1
0.72869 -0.0148241 -0.0148241 2 2 1
0.729409 -0.0145707 -0.0145707 2 2 1
0.730128 -0.0143171 -0.0143171 2 2 1
0.730847 -0.0140633 -0.0140633 2 2 1
0.731567 -0.0138094 -0.0138094 2 2 1
0.732287 -0.0135554 -0.0135554 2 2 1
0.733008 -0.0133012 -0.0133012 2 2 1
0.733729 -0.0130469 -0.0130469 2 2 1
0.73445 -0.0127924 -0.0127924 2 2 1
0.735172 -0.0125378 -0.0125378 2 2 1
0.735894 -0.0122831 -0.0122831 2 2 1
0.736617 -0.0120282 -0.0120282 2 2 1
0.73734 -0.0117732 -0.0117732 2 2 1
0.738063 -0.011518 -0.011518 2 2 1
0.738787 -0.0112627 -0.0112627 2 2 1
0.739511 -0.0110073 -0.0110073 2 2 1
0.740236 -0.0107517 -0.0107517 2 2 1
0.740961 -0.010496 -0.010496 2 2 1
0.741686 -0.0102401 -0.0102401 2 2 1
0.742412 -0.00998407 -0.00998407 2 2 1
0.743139 -0.00972791 -0.00972791 2 2 1
0.743865 -0.00947161 -0.00947161 2 2 1
0.744592 -0.00921517 -0.00921517 2 2 1
0.74532 -0.00895858 -0.00895858 2 2 1
0.746048 -0.00870185 -0.00870185 2 2 1
0.746776 -0.00844498 -0.00844498 2 2 1
0.747504 -0.00818797 -0.00818797 2 2 1
0.748234 -0.00793081 -0.00793081 2 2 1
0.748963 -0.0076735 -0.0076735 2 2 1
0.749693 -0.00741606 -0.00741606 2 2 1
0.750423 -0.00715847 -0.00715847 2 2 1
0.751154 -0.00690074 -0.00690074 2 2 1
0.751885 -0.00664286 -0.00664286 2 2 1
0.752617 -0.00638484 -0.00638484 2 2 1
0.753348 -0.00612667 -0.00612667 2 2 1
0.754081 -0.00586836 -0.00586836 2 2 1
0.754814 -0.00560991 -0.00560991 2 2 1
0.755547 -0.00535131 -0.00535131 2 2 1
0.75628 -0.00509257 -0.00509257 2 2 1
0.757014 -0.00483368 -0.00483368 2 2 1
0.757749 -0.00457465 -0.00457465 2 2 1
0.758483 -0.00431547 -0.00431547 2 2 1
0.759219 -0.00405615 -0.00405615 2 2 1
0.759954 -0.00379668 -0.00379668 2 2 1
0.76069 -0.00353707 -0.00353707 2 2 1
0.761427 -0.00327731 -0.00327731 2 2 1
0.762164 -0.0030174 -0.0030174 2 2 1
0.762901 -0.00275735 -0.00275735 2 2 1
0.763639 -0.00249716 -0.00249716 2 2 1
0.764377 -0.00223681 -0.00223681 2 2 1
0.765115 -0.00197632 -0.00197632 2 2 1
0.765854 -0.00171569 -0.00171569 2 2 1
0.766593 -0.00145491 -0.00145491 2 2 1
0.767333 -0.00119398 -0.00119398 2 2 1
0.768073 -0.000932909 -0.000932909 2 2 1
0.768814 -0.000671688 -0.000671688 2 2 1
0.769555 -0.000410321 -0.000410321 2 2 1
0.770296 -0.000148807 -0.000148807 2 2 1
0.771038 0.000112855 0.000112855 2 2 1
0.77178 0.000374663 0.000374663 2 2 1
0.772523 0.000636619 0.000636619 2 2 1
0.773266 0.000898723 0.000898723 2 2 1
0.77401 0.00116097 0.00116097 2 2 1
0.774754 0.00142337 0.00142337 2 2 1
0.775498 0.00168592 0.00168592 2 2 1
0.776243 0.00194861 0.00194861 2 2 1
0.776988 0.00221146 0.00221146 2 2 1
0.777734 0.00247445 0.00247445 2 2 1
0.77848 0.00273759 0.00273759 2 2 1
0.779226 0.00300087 0.00300087 2 2 1
0.779973 0.00326431 0.00326431 2 2 1
0.78072 0.00352789 0.00352789 2 2 1
0.781468 0.00379163 0.00379163 2 2 1
0.782216 0.00405551 0.00405551 2 2 1
0.782965 0.00431954 0.00431954 2 2 1
0.783714 0.00458372 0.00458372 2 2 1
0.784463 0.00484805 0.00484805 2 2 1
0.785213 0.00511253 0.00511253 2 2 1
0.785963 0.00537716 0.00537716 2 2 1
0.786714 0.00564194 0.00564194 2 2 1
0.787465 0.00590687 0.00590687 2 2 1
0.788216 0.00617195 0.00617195 2 2 1
0.788968 0.00643718 0.00643718 2 2 1
0.789721 0.00670256 0.00670256 2 2 1
0.790474 0.00696809 0.00696809 2 2 1
0.791227 0.00723377 0.00723377 2 2 1
0.79198 0.0074996 0.0074996 2 2 1
0.792735 0.00776558 0.00776558 2 2 1
0.793489 0.00803171 0.00803171 2 2 1
0.794244 0.00829799 0.00829799 2 2 1
0.794999 0.00856443 0.00856443 2 2 1
0.795755 0.00883101 0.00883101 2 2 1
0.796511 0.00909775 0.00909775 2 2 1
0.797268 0.00936464 0.00936464 2 2 1
0.798025 0.00963168 0.00963168 2 2 1
0.798783 0.00989887 0.00989887 2 2 1
0.799541 0.0101662 0.0101662 2 2 1
0.800299 0.0104337 0.0104337 2 2 1
0.801058 0.0107014 0.0107014 2 2 1
0.801817 0.0109692 0.0109692 2 2 1
0.802577 0.0112371 0.0112371 2 2 1
0.803337 0.0115052 0.0115052 2 2 1
0.804097 0.0117735 0.0117735 2 2 1
0.804858 0.0120419 0.0120419 2 2 1
0.80562 0.0123104 0.0123104 2 2 1
0.806382 0.0125792 0.0125792 2 2 1
0.807144 0.012848 0.012848 2 2 1
0.807907 0.0131171 0.0131171 2 2 1
0.80867 0.0133862 0.0133862 2 2 1
0.809433 0.0136556 0.0136556 2 2 1
0.810197 0.013925 0.013925 2 2 1
0.810962 0.0141947 0.0141947 2 2 1
0.811727 0.0144645 0.0144645 2 2 1
0.812492 0.0147344 0.0147344 2 2 1
0.813258 0.0150045 0.0150045 2 2 1
0.814024 0.0152748 0.0152748 2 2 1
0.814791 0.0155452 0.0155452 2 2 1
0.815558 0.0158158 0.0158158 2 2 1
0.816325 0.0160865 0.0160865 2 2 1
0.817093 0.0163573 0.0163573 2 2 1
0.817862 0.0166284 0.0166284 2 2 1
0.81863 0.0168996 0.0168996 2 2 1
0.8194 0.0171709 0.0171709 2 2 1
0.820169 0.0174424 0.0174424 2 2 1
0.820939 0.017714 0.017714 2 2 1
0.82171 0.0179858 0.0179858 2 2 1
0.822481 0.0182578 0.0182578 2 2 1
0.823253 0.0185299 0.0185299 2 2 1
0.824025 0.0188022 0.0188022 2 2 1
0.824797 0.0190746 0.0190746 2 2 1
0.82557 0.0193472 0.0193472 2 2 1
0.826343 0.01962 0.01962 2 2 1
0.827117 0.0198929 0.0198929 2 2 1
0.827891 0.0201659 0.0201659 2 2 1
0.828665 0.0204391 0.0204391 2 2 1
0.82944 0.0207125 0.0207125 2 2 1
0.830216 0.020986 0.020986 2 2 1
0.830992 0.0212597 0.0212597 2 2 1
0.831768 0.0215335 0.0215335 2 2 1
0.832545 0.0218075 0.0218075 2 2 1
0.833322 0.0220817 0.0220817 2 2 1
0.8341 0.022356 0.022356 2 2 1
0.834878 0.0226305 0.0226305 2 2 1
0.835657 0.0229051 0.0229051 2 2 1
0.836436 0.0231799 0.0231799 2 2 1
0.837215 0.0234549 0.0234549 2 2 1
0.837995 0.02373 0.02373 2 2 1
0.838776 0.0240052 0.0240052 2 2 1
0.839557 0.0242807 0.0242807 2 2 1
0.840338 0.0245562 0.0245562 2 2 1
0.84112 0.024832 0.024832 2 2 1
0.841902 0.0251079 0.0251079 2 2 1
0.842685 0.0253839 0.0253839 2 2 1
0.843468 0.0256602 0.0256602 2 2 1
0.844251 0.0259366 0.0259366 2 2 1
0.845035 0.0262131 0.0262131 2 2 1
0.84582 0.0264898 0.0264898 2 2 1
0.846605 0.0267667 0.0267667 2 2 1
0.84739 0.0270437 0.0270437 2 2 1
0.848176 0.0273209 0.0273209 2 2 1
0.848962 0.0275982 0.0275982 2 2 1
0.849749 0.0278757 0.0278757 2 2 1
0.850536 0.0281534 0.0281534 2 2 1
0.851324 0.0284312 0.0284312 2 2 1
0.852112 0.0287092 0.0287092 2 2 1
0.8529 0.0289873 0.0289873 2 2 1
0.853689 0.0292656 0.0292656 2 2 1
0.854479 0.0295441 0.0295441 2 2 1
0.855269 0.0298227 0.0298227 2 2 1
0.856059 0.0301015 0.0301015 2 2 1
0.85685 0.0303805 0.0303805 2 2 1
0.857642 0.0306596 0.0306596 2 2 1
0.858433 0.0309389 0.0309389 2 2 1
0.859226 0.0312183 0.0312183 2 2 1
0.860018 0.0314979 0.0314979 2 2 1
0.860811 0.0317777 0.0317777 2 2 1
0.861605 0.0320576 0.0320576 2 2 1
0.862399 0.0323377 0.0323377 2 2 1
0.863194 0.0326179 0.0326179 2 2 1
0.863989 0.0328984 0.0328984 2 2 1
0.864784 0.0331789 0.0331789 2 2 1
0.86558 0.0334597 0.0334597 2 2 1
0.866376 0.0337406 0.0337406 2 2 1
0.867173 0.0340217 0.0340217 2 2 1
0.867971 0.0343029 0.0343029 2 2 1
0.868768 0.0345843 0.0345843 2 2 1
0.869567 0.0348659 0.0348659 2 2 1
0.870365 0.0351476 0.0351476 2 2 1
0.871165 0.0354295 0.0354295 2 2 1
0.871964 0.0357115 0.0357115 2 2 1
0.872764 0.0359937 0.0359937 2 2 1
0.873565 0.0362761 0.0362761 2 2 1
0.874366 0.0365587 0.0365587 2 2 1
0.875168 0.0368414 0.0368414 2 2 1
0.87597 0.0371243 0.0371243 2 2 1
0.876772 0.0374073 0.0374073 2 2 1
0.877575 0.0376905 0.0376905 2 2 1
0.878378 0.0379739 0.0379739 2 2 1
0.879182 0.0382575 0.0382575 2 2 1
0.879987 0.0385412 0.0385412 2 2 1
0.880792 0.0388251 0.0388251 2 2 1
0.881597 0.0391091 0.0391091 2 2 1
0.882403 0.0393933 0.0393933 2 2 1
0.883209 0.0396777 0.0396777 2 2 1
0.884016 0.0399622 0.0399622 2 2 1
0.884823 0.0402469 0.0402469 2 2 1
0.88563 0.0405318 0.0405318 2 2 1
0.886439 0.0408169 0.0408169 2 2 1
0.887247 0.0411021 0.0411021 2 2 1
0.888056 0.0413874 0.0413874 2 2 1
0.888866 0.041673 0.041673 2 2 1
0.889676 0.0419587 0.0419587 2 2 1
0.890486 0.0422446 0.0422446 2 2 1
0.891297 0.0425306 0.0425306 2 2 1
0.892109 0.0428169 0.0428169 2 2 1
0.892921 0.0431033 0.0431033 2 2 1
0.893733 0.0433898 0.0433898 2 2 1
0.894546 0.0436765 0.0436765 2 2 1
0.895359 0.0439634 0.0439634 2 2 1
0.896173 0.0442505 0.0442505 2 2 1
0.896988 0.0445377 0.0445377 2 2 1
0.897802 0.0448251 0.0448251 2 2 1
0.898618 0.0451127 0.0451127 2 2 1
0.899433 0.0454004 0.0454004 2 2 1
0.90025 0.0456883 0.0456883 2 2 1
0.901066 0.0459764 0.0459764 2 2 1
0.901884 0.0462647 0.0462647 2 2 1
0.902701 0.0465531 0.0465531 2 2 1
0.90352 0.0468417 0.0468417 2 2 1
0.904338 0.0471304 0.0471304 2 2 1
0.905157 0.0474194 0.0474194 2 2 1
0.905977 0.0477085 0.0477085 2 2 1
0.906797 0.0479977 0.0479977 2 2 1
0.907618 0.0482872 0.0482872 2 2 1
0.908439 0.0485768 0.0485768 2 2 1
0.90926 0.0488666 0.0488666 2 2 1
0.910082 0.0491565 0.0491565 2 2 1
0.910905 0.0494467 0.0494467 2 2 1
0.911728 0.049737 0.049737 2 2 1
0.912552 0.0500275 0.0500275 2 2 1
0.913376 0.0503181 0.0503181 2 2 1
0.9142 0.0506089 0.0506089 2 2 1
0.915025 0.0508999 0.0508999 2 2 1
0.915851 0.0511911 0.0511911 2 2 1
0.916677 0.0514824 0.0514824 2 2 1
0.917503 0.0517739 0.0517739 2 2 1
0.91833 0.0520656 0.0520656 2 2 1
0.919157 0.0523575 0.0523575 2 2 1
0.919985 0.0526495 0.0526495 2 2 1
0.920814 0.0529417 0.0529417 2 2 1
0.921643 0.0532341 0.0532341 2 2 1
0.922472 0.0535266 0.0535266 2 2 1
0.923302 0.0538193 0.0538193 2 2 1
0.924132 0.0541122 0.0541122 2 2 1
0.924963 0.0544053 0.0544053 2 2 1
0.925795 0.0546986 0.0546986 2 2 1
0.926627 0.054992 0.054992 2 2 1
0.927459 0.0552856 0.0552856 2 2 1
0.928292 0.0555793 0.0555793 2 2 1
0.929125 0.0558733 0.0558733 2 2 1
0.929959 0.0561674 0.0561674 2 2 1
0.930793 0.0564617 0.0564617 2 2 1
0.931628 0.0567562 0.0567562 2 2 1
0.932464 0.0570508 0.0570508 2 2 1
0.933299 0.0573457 0.0573457 2 2 1
0.934136 0.0576407 0.0576407 2 2 1
0.934973 0.0579358 0.0579358 2 2 1
0.93581 0.0582312 0.0582312 2 2 1
0.936648 0.0585267 0.0585267 2 2 1
0.937486 0.0588224 0.0588224 2 2 1
0.938325 0.0591183 0.0591183 2 2 1
0.939164 0.0594144 0.0594144 2 2 1
0.940004 0.0597106 0.0597106 2 2 1
0.940845 0.060007 0.060007 2 2 1
0.941686 0.0603036 0.0603036 2 2 1
0.942527 0.0606004 0.0606004 2 2 1
0.943369 0.0608973 0.0608973 2 2 1
0.944211 0.0611945 0.0611945 2 2 1
0.945054 0.0614918 0.0614918 2 2 1
0.945897 0.0617892 0.0617892 2 2 1
0.946741 0.0620869 0.0620869 2 2 1
0.947586 0.0623847 0.0623847 2 2 1
0.948431 0.0626828 0.0626828 2 2 1
0.949276 0.062981 0.062981 2 2 1
0.950122 0.0632793 0.0632793 2 2 1
0.950968 0.0635779 0.0635779 2 2 1
0.951815 0.0638766 0.0638766 2 2 1
0.952663 0.0641755 0.0641755 2 2 1
0.953511 0.0644746 0.0644746 2 2 1
0.954359 0.0647739 0.0647739 2 2 1
0.955208 0.0650733 0.0650733 2 2 1
0.956058 0.065373 0.065373 2 2 1
0.956908 0.0656728 0.0656728 2 2 1
0.957758 0.0659728 0.0659728 2 2 1
0.958609 0.066273 0.066273 2 2 1
0.959461 0.0665733 0.0665733 2 2 1
0.960313 0.0668739 0.0668739 2 2 1
0.961166 0.0671746 0.0671746 2 2 1
0.962019 0.0674755 0.0674755 2 2 1
0.962872 0.0677766 0.0677766 2 2 1
0.963726 0.0680778 0.0680778 2 2 1
0.964581 0.0683793 0.0683793 2 2 1
0.965436 0.0686809 0.0686809 2 2 1
0.966292 0.0689827 0.0689827 2 2 1
0.967148 0.0692847 0.0692847 2 2 1
0.968005 0.0695869 0.0695869 2 2 1
0.968862 0.0698892 0.0698892 2 2 1
0.96972 0.0701918 0.0701918 2 2 1
0.970578 0.0704945 0.0704945 2 2 1
0.971437 0.0707974 0.0707974 2 2 1
0.972296 0.0711005 0.0711005 2 2 1
0.973156 0.0714038 0.0714038 2 2 1
0.974016 0.0717072 0.0717072 2 2 1
0.974877 0.0720108 0.0720108 2 2 1
0.975738 0.0723147 0.0723147 2 2 1
0.9766 0.0726187 0.0726187 2 2 1
0.977463 0.0729229 0.0729229 2 2 1
0.978326 0.0732273 0.0732273 2 2 1
0.979189 0.0735318 0.0735318 2 2 1
0.980053 0.0738366 0.0738366 2 2 1
0.980917 0.0741415 0.0741415 2 2 1
0.981783 0.0744466 0.0744466 2 2 1
0.982648 0.0747519 0.0747519 2 2 1
0.983514 0.0750574 0.0750574 2 2 1
0.984381 0.0753631 0.0753631 2 2 1
0.985248 0.0756689 0.0756689 2 2 1
0.986116 0.075975 0.075975 2 2 1
0.986984 0.0762812 0.0762812 2 2 1
0.987853 0.0765876 0.0765876 2 2 1
0.988722 0.0768942 0.0768942 2 2 1
0.989592 0.077201 0.077201 2 2 1
0.990462 0.077508 0.077508 2 2 1
0.991333 0.0778152 0.0778152 2 2 1
0.992204 0.0781225 0.0781225 2 2 1
0.993076 0.07843 0.07843 2 2 1
0.993948 0.0787378 0.0787378 2 2 1
0.994821 0.0790457 0.0790457 2 2 1
0.995695 0.0793538 0.0793538 2 2 1
0.996569 0.0796621 0.0796621 2 2 1
0.997444 0.0799706 0.0799706 2 2 1
0.998319 0.0802792 0.0802792 2 2 1
0.999194 0.0805881 0.0805881 2 2 1
1.00007 0.0808971 0.0808971 2 2 1
1.00095 0.0812064 0.0812064 2 2 1
1.00182 0.0815158 0.0815158 2 2 1
1.0027 0.0818254 0.0818254 2 2 1
1.00358 0.0821352 0.0821352 2 2 1
1.00446 0.0824452 0.0824452 2 2 1
1.00534 0.0827554 0.0827554 2 2 1
1.00622 0.0830657 0.0830657 2 2 1
1.0071 0.0833763 0.0833763 2 2 1
1.00798 0.0836871 0.0836871 2 2 1
1.00886 0.083998 0.083998 2 2 1
1.00974 0.0843091 0.0843091 2 2 1
1.01063 0.0846205 0.0846205 2 2 1
1.01151 0.084932 0.084932 2 2 1
1.01239 0.0852437 0.0852437 2 2 1
1.01328 0.0855556 0.0855556 2 2 1
1.01416 0.0858677 0.0858677 2 2 1
1.01505 0.0861799 0.0861799 2 2 1
1.01593 0.0864924 0.0864924 2 2 1
1.01682 0.0868051 0.0868051 2 2 1
1.01771 0.0871179 0.0871179 2 2 1
1.01859 0.087431 0.087431 2 2 1
1.01948 0.0877442 0.0877442 2 2 1
1.02037 0.0880577 0.0880577 2 2 1
1.02126 0.0883713 0.0883713 2 2 1
1.02215 0.0886851 0.0886851 2 2 1
1.02304 0.0889991 0.0889991 2 2 1
1.02393 0.0893133 0.0893133 2 2 1
1.02482 0.0896277 0.0896277 2 2 1
1.02571 0.0899423 0.0899423 2 2 1
1.02661 0.0902571 0.0902571 2 2 1
1.0275 0.0905721 0.0905721 2 2 1
1.02839 0.0908873 0.0908873 2 2 1
1.02929 0.0912026 0.0912026 2 2 1
1.03018 0.0915182 0.0915182 2 2 1
1.03108 0.091834 0.091834 2 2 1
1.03197 0.0921499 0.0921499 2 2 1
1.03287 0.0924661 0.0924661 2 2 1
1.03377 0.0927824 0.0927824 2 2 1
1.03466 0.093099 0.093099 2 2 1
1.03556 0.0934157 0.0934157 2 2 1
1.03646 0.0937326 0.0937326 2 2 1
1.03736 0.0940498 0.0940498 2 2 1
1.03826 0.0943671 0.0943671 2 2 1
1.03916 0.0946846 0.0946846 2 2 1
1.04006 0.0950023 0.0950023 2 2 1
1.04096 0.0953203 0.0953203 2 2 1
1.04186 0.0956384 0.0956384 2 2 1
1.04277 0.0959567 0.0959567 2 2 1
1.04367 0.0962752 0.0962752 2 2 1
1.04457 0.0965939 0.0965939 2 2 1
1.04548 0.0969128 0.0969128 2 2 1
1.04638 0.0972319 0.0972319 2 2 1
1.04729 0.0975512 0.0975512 2 2 1
1.04819 0.0978707 0.0978707 2 2 1
1.0491 0.0981904 0.0981904 2 2 1
1.05001 0.0985103 0.0985103 2 2 1
1.05091 0.0988304 0.0988304 2 2 1
1.05182 0.0991507 0.0991507 2 2 1
1.05273 0.0994712 0.0994712 2 2 1
1.05364 0.0997919 0.0997919 2 2 1
1.05455 0.100113 0.100113 2 2 1
1.05546 0.100434 0.100434 2 2 1
1.05637 0.100755 0.100755 2 2 1
1.05728 0.101077 0.101077 2 2 1
1.05819 0.101398 0.101398 2 2 1
1.05911 0.10172 0.10172 2 2 1
1.06002 0.102042 0.102042 2 2 1
1.06093 0.102365 0.102365 2 2 1
1.06185 0.102687 0.102687 2 2 1
1.06276 0.10301 0.10301 2 2 1
1.06368 0.103333 0.103333 2 2 1
1.06459 0.103656 0.103656 2 2 1
1.06551 0.103979 0.103979 2 2 1
1.06643 0.104303 0.104303 2 2 1
1.06735 0.104626 0.104626 2 2 1
1.06826 0.10495 0.10495 2 2 1
1.06918 0.105274 0.105274 2 2 1
1.0701 0.105599 0.105599 2 2 1
1.07102 0.105923 0.105923 2 2 1
1.07194 0.106248 0.106248 2 2 1
1.07286 0.106573 0.106573 2 2 1
1.07379 0.106898 0.106898 2 2 1
1.07471 0.107223 0.107223 2 2 1
1.07563 0.107549 0.107549 2 2 1
1.07655 0.107875 0.107875 2 2 1
1.07748 0.108201 0.108201 2 2 1
1.0784 0.108527 0.108527 2 2 1
1.07933 0.108853 0.108853 2 2 1
1.08025 0.10918 0.10918 2 2 1
1.08118 0.109506 0.109506 2 2 1
1.08211 0.109833 0.109833 2 2 1
1.08304 0.110161 0.110161 2 2 1
1.08396 0.110488 0.110488 2 2 1
1.08489 0.110816 0.110816 2 2 1
1.08582 0.111143 0.111143 2 2 1
1.08675 0.111471 0.111471 2 2 1
1.08768 0.1118 0.1118 2 2 1
1.08861 0.112128 0.112128 2 2 1
1.08955 0.112457 0.112457 2 2 1
1.09048 0.112785 0.112785 2 2 1
1.09141 0.113114 0.113114 2 2 1
1.09234 0.113444 0.113444 2 2 1
1.09328 0.113773 0.113773 2 2 1
1.09421 0.114103 0.114103 2 2 1
1.09515 0.114433 0.114433 2 2 1
1.09608 0.114763 0.114763 2 2 1
1.09702 0.115093 0.115093 2 2 1
1.09796 0.115424 0.115424 2 2 1
1.09889 0.115754 0.115754 2 2 1
1.09983 0.116085 0.116085 2 2 1
1.10077 0.116416 0.116416 2 2 1
1.10171 0.116748 0.116748 2 2 1
1.10265 0.117079 0.117079 2 2 1
1.10359 0.117411 0.117411 2 2 1
1.10453 0.117743 0.117743 2 2 1
1.10547 0.118075 0.118075 2 2 1
1.10642 0.118407 0.118407 2 2 1
1.10736 0.11874 0.11874 2 2 1
1.1083 0.119073 0.119073 2 2 1
1.10925 0.119406 0.119406 2 2 1
1.11019 0.119739 0.119739 2 2 1
1.11114 0.120073 0.120073 2 2 1
1.11208 0.120406 0.120406 2 2 1
1.11303 0.12074 0.12074 2 2 1
1.11398 0.121074 0.121074 2 2 1
1.11492 0.121408 0.121408 2 2 1
1.11587 0.121743 0.121743 2 2 1
1.11682 0.122078 0.122078 2 2 1
1.11777 0.122413 0.122413 2 2 1
1.11872 0.122748 0.122748 2 2 1
1.11967 0.123083 0.123083 2 2 1
1.12062 0.123419 0.123419 2 2 1
1.12158 0.123754 0.123754 2 2 1
1.12253 0.12409 0.12409 2 2 1
1.12348 0.124427 0.124427 2 2 1
1.12444 0.124763 0.124763 2 2 1
1.12539 0.1251 0.1251 2 2 1
1.12634 0.125436 0.125436 2 2 1
1.1273 0.125774 0.125774 2 2 1
1.12826 0.126111 0.126111 2 2 1
1.12921 0.126448 0.126448 2 2 1
1.13017 0.126786 0.126786 2 2 1
1.13113 0.127124 0.127124 2 2 1
1.13209 0.127462 0.127462 2 2 1
1.13305 0.1278 0.1278 2 2 1
1.13401 0.128139 0.128139 2 2 1
1.13497 0.128478 0.128478 2 2 1
1.13593 0.128817 0.128817 2 2 1
1.13689 0.129156 0.129156 2 2 1
1.13785 0.129496 0.129496 2 2 1
1.13882 0.129835 0.129835 2 2 1
1.13978 0.130175 0.130175 2 2 1
1.14074 0.130515 0.130515 2 2 1
1.14171 0.130855 0.130855 2 2 1
1.14267 0.131196 0.131196 2 2 1
1.14364 0.131537 0.131537 2 2 1
1.14461 0.131878 0.131878 2 2 1
1.14557 0.132219 0.132219 2 2 1
1.14654 0.13256 0.13256 2 2 1
1.14751 0.132902 0.132902 2 2 1
1.14848 0.133244 0.133244 2 2 1
1.14945 0.133586 0.133586 2 2 1
1.15042 0.133928 0.133928 2 2 1
1.15139 0.134271 0.134271 2 2 1
1.15236 0.134613 0.134613 2 2 1
1.15333 0.134956 0.134956 2 2 1
1.15431 0.1353 0.1353 2 2 1
1.15528 0.135643 0.135643 2 2 1
1.15625 0.135987 0.135987 2 2 1
1.15723 0.13633 0.13633 2 2 1
1.15821 0.136674 0.136674 2 2 1
1.15918 0.137019 0.137019 2 2 1
1.16016 0.137363 0.137363 2 2 1
1.16114 0.137708 0.137708 2 2 1
1.16211 0.138053 0.138053 2 2 1
1.16309 0.138398 0.138398 2 2 1
1.16407 0.138743 0.138743 2 2 1
1.16505 0.139089 0.139089 2 2 1
1.16603 0.139435 0.139435 2 2 1
1.16701 0.139781 0.139781 2 2 1
1.16799 0.140127 0.140127 2 2 1
1.16898 0.140474 0.140474 2 2 1
1.16996 0.14082 0.14082 2 2 1
1.17094 0.141167 0.141167 2 2 1
1.17193 0.141515 0.141515 2 2 1
1.17291 0.141862 0.141862 2 2 1
1.1739 0.14221 0.14221 2 2 1
1.17488 0.142557 0.142557 2 2 1
1.17587 0.142906 0.142906 2 2 1
1.17686 0.143254 0.143254 2 2 1
1.17785 0.143602 0.143602 2 2 1
1.17884 0.143951 0.143951 2 2 1
1.17982 0.1443 0.1443 2 2 1
1.18081 0.144649 0.144649 2 2 1
1.18181 0.144999 0.144999 2 2 1
1.1828 0.145348 0.145348 2 2 1
1.18379 0.145698 0.145698 2 2 1
1.18478 0.146048 0.146048 2 2 1
1.18577 0.146399 0.146399 2 2 1
1.18677 0.146749 0.146749 2 2 1
1.18776 0.1471 0.1471 2 2 1
1.18876 0.147451 0.147451 2 2 1
1.18975 0.147803 0.147803 2 2 1
1.19075 0.148154 0.148154 2 2 1
1.19175 0.148506 0.148506 2 2 1
1.19275 0.148858 0.148858 2 2 1
1.19374 0.14921 0.14921 2 2 1
1.19474 0.149562 0.149562 2 2 1
1.19574 0.149915 0.149915 2 2 1
1.19674 0.150268 0.150268 2 2 1
1.19774 0.150621 0.150621 2 2 1
1.19875 0.150974 0.150974 2 2 1
1.19975 0.151328 0.151328 2 2 1
1.20075 0.151682 0.151682 2 2 1
1.20176 0.152036 0.152036 2 2 1
1.20276 0.15239 0.15239 2 2 1
1.20377 0.152744 0.152744 2 2 1
1.20477 0.153099 0.153099 2 2 1
1.20578 0.153454 0.153454 2 2 1
1.20678 0.153809 0.153809 2 2 1
1.20779 0.154165 0.154165 2 2 1
1.2088 0.15452 0.15452 2 2 1
1.20981 0.154876 0.154876 2 2 1
1.21082 0.155232 0.155232 2 2 1
1.21183 0.155589 0.155589 2 2 1
1.21284 0.155945 0.155945 2 2 1
1.21385 0.156302 0.156302 2 2 1
1.21486 0.156659 0.156659 2 2 1
1.21588 0.157016 0.157016 2 2 1
1.21689 0.157374 0.157374 2 2 1
1.2179 0.157732 0.157732 2 2 1
1.21892 0.15809 0.15809 2 2 1
1.21994 0.158448 0.158448 2 2 1
1.22095 0.158806 0.158806 2 2 1
1.22197 0.159165 0.159165 2 2 1
1.22299 0.159524 0.159524 2 2 1
1.224 0.159883 0.159883 2 2 1
1.22502 0.160243 0.160243 2 2 1
1.22604 0.160602 0.160602 2 2 1
1.22706 0.160962 0.160962 2 2 1
1.22808 0.161322 0.161322 2 2 1
1.22911 0.161683 0.161683 2 2 1
1.23013 0.162043 0.162043 2 2 1
1.23115 0.162404 0.162404 2 2 1
1.23218 0.162765 0.162765 2 2 1
1.2332 0.163126 0.163126 2 2 1
1.23422 0.163488 0.163488 2 2 1
1.23525 0.16385 0.16385 2 2 1
1.23628 0.164212 0.164212 2 2 1
1.2373 0.164574 0.164574 2 2 1
1.23833 0.164937 0.164937 2 2 1
1.23936 0.165299 0.165299 2 2 1
1.24039 0.165662 0.165662 2 2 1
1.24142 0.166026 0.166026 2 2 1
1.24245 0.166389 0.166389 2 2 1
1.24348 0.166753 0.166753 2 2 1
1.24451 0.167117 0.167117 2 2 1
1.24554 0.167481 0.167481 2 2 1
1.24658 0.167845 0.167845 2 2 1
1.24761 0.16821 0.16821 2 2 1
1.24865 0.168575 0.168575 2 2 1
1.24968 0.16894 0.16894 2 2 1
1.25072 0.169305 0.169305 2 2 1
1.25175 0.169671 0.169671 2 2 1
1.25279 0.170037 0.170037 2 2 1
1.25383 0.170403 0.170403 2 2 1
1.25487 0.17077 0.17077 2 2 1
1.25591 0.171136 0.171136 2 2 1
1.25695 0.171503 0.171503 2 2 1
1.25799 0.17187 0.17187 2 2 1
1.25903 0.172237 0.172237 2 2 1
1.26007 0.172605 0.172605 2 2 1
1.26112 0.172973 0.172973 2 2 1
1.26216 0.173341 0.173341 2 2 1
1.2632 0.173709 0.173709 2 2 1
1.26425 0.174078 0.174078 2 2 1
1.26529 0.174447 0.174447 2 2 1
1.26634 0.174816 0.174816 2 2 1
1.26739 0.175185 0.175185 2 2 1
1.26844 0.175555 0.175555 2 2 1
1.26948 0.175925 0.175925 2 2 1
1.27053 0.176295 0.176295 2 2 1
1.27158 0.176665 0.176665 2 2 1
1.27263 0.177035 0.177035 2 2 1
1.27368 0.177406 0.177406 2 2 1
1.27474 0.177777 0.177777 2 2 1
1.27579 0.178149 0.178149 2 2 1
1.27684 0.17852 0.17852 2 2 1
1.2779 0.178892 0.178892 2 2 1
1.27895 0.179264 0.179264 2 2 1
1.28001 0.179636 0.179636 2 2 1
1.28106 0.180009 0.180009 2 2 1
1.28212 0.180382 0.180382 2 2 1
1.28318 0.180755 0.180755 2 2 1
1.28424 0.181128 0.181128 2 2 1
1.2853 0.181502 0.181502 2 2 1
1.28635 0.181875 0.181875 2 2 1
1.28742 0.182249 0.182249 2 2 1
1.28848 0.182624 0.182624 2 2 1
1.28954 0.182998 0.182998 2 2 1
1.2906 0.183373 0.183373 2 2 1
1.29166 0.183748 0.183748 2 2 1
1.29273 0.184123 0.184123 2 2 1
1.29379 0.184499 0.184499 2 2 1
1.29486 0.184875 0.184875 2 2 1
1.29592 0.185251 0.185251 2 2 1
1.29699 0.185627 0.185627 2 2 1
1.29806 0.186004 0.186004 2 2 1
1.29913 0.186381 0.186381 2 2 1
1.3002 0.186758 0.186758 2 2 1
1.30127 0.187135 0.187135 2 2 1
1.30234 0.187513 0.187513 2 2 1
1.30341 0.187891 0.187891 2 2 1
1.30448 0.188269 0.188269 2 2 1
1.30555 0.188647 0.188647 2 2 1
1.30663 0.189026 0.189026 2 2 1
1.3077 0.189405 0.189405 2 2 1
1.30878 0.189784 0.189784 2 2 1
1.30985 0.190163 0.190163 2 2 1
1.31093 0.190543 0.190543 2 2 1
1.312 0.190923 0.190923 2 2 1
1.31308 0.191303 0.191303 2 2 1
1.31416 0.191683 0.191683 2 2 1
1.31524 0.192064 0.192064 2 2 1
1.31632 0.192445 0.192445 2 2 1
1.3174 0.192826 0.192826 2 2 1
1.31848 0.193207 0.193207 2 2 1
1.31956 0.193589 0.193589 2 2 1
1.32065 0.193971 0.193971 2 2 1
1.32173 0.194353 0.194353 2 2 1
1.32282 0.194736 0.194736 2 2 1
1.3239 0.195119 0.195119 2 2 1
1.32499 0.195502 0.195502 2 2 1
1.32607 0.195885 0.195885 2 2 1
1.32716 0.196268 0.196268 2 2 1
1.32825 0.196652 0.196652 2 2 1
1.32934 0.197036 0.197036 2 2 1
1.33043 0.197421 0.197421 2 2 1
1.33152 0.197805 0.197805 2 2 1
1.33261 0.19819 0.19819 2 2 1
1.3337 0.198575 0.198575 2 2 1
1.33479 0.19896 0.19896 2 2 1
1.33589 0.199346 0.199346 2 2 1
1.33698 0.199732 0.199732 2 2 1
1.33807 0.200118 0.200118 2 2 1
1.33917 0.200505 0.200505 2 2 1
1.34027 0.200891 0.200891 2 2 1
1.34136 0.201278 0.201278 2 2 1
1.34246 0.201665 0.201665 2 2 1
1.34356 0.202053 0.202053 2 2 1
1.34466 0.202441 0.202441 2 2 1
1.34576 0.202829 0.202829 2 2 1
1.34686 0.203217 0.203217 2 2 1
1.34796 0.203605 0.203605 2 2 1
1.34906 0.203994 0.203994 2 2 1
1.35017 0.204383 0.204383 2 2 1
1.35127 0.204773 0.204773 2 2 1
1.35238 0.205162 0.205162 2 2 1
1.35348 0.205552 0.205552 2 2 1
1.35459 0.205942 0.205942 2 2 1
1.35569 0.206333 0.206333 2 2 1
1.3568 0.206723 0.206723 2 2 1
1.35791 0.207114 0.207114 2 2 1
1.35902 0.207505 0.207505 2 2 1
1.36013 0.207897 0.207897 2 2 1
1.36124 0.208289 0.208289 2 2 1
1.36235 0.208681 0.208681 2 2 1
1.36346 0.209073 0.209073 2 2 1
1.36458 0.209466 0.209466 2 2 1
1.36569 0.209858 0.209858 2 2 1
1.3668 0.210252 0.210252 2 2 1
1.36792 0.210645 0.210645 2 2 1
1.36904 0.211039 0.211039 2 2 1
1.37015 0.211432 0.211432 2 2 1
1.37127 0.211827 0.211827 2 2 1
1.37239 0.212221 0.212221 2 2 1
1.37351 0.212616 0.212616 2 2 1
1.37463 0.213011 0.213011 2 2 1
1.37575 0.213406 0.213406 2 2 1
1.37687 0.213802 0.213802 2 2 1
1.37799 0.214197 0.214197 2 2 1
1.37911 0.214594 0.214594 2 2 1
1.38024 0.21499 0.21499 2 2 1
1.38136 0.215387 0.215387 2 2 1
1.38249 0.215784 0.215784 2 2 1
1.38361 0.216181 0.216181 2 2 1
1.38474 0.216578 0.216578 2 2 1
1.38587 0.216976 0.216976 2 2 1
1.387 0.217374 0.217374 2 2 1
1.38813 0.217772 0.217772 2 2 1
1.38926 0.218171 0.218171 2 2 1
1.39039 0.21857 0.21857 2 2 1
1.39152 0.218969 0.218969 2 2 1
1.39265 0.219368 0.219368 2 2 1
1.39378 0.219768 0.219768 2 2 1
1.39492 0.220168 0.220168 2 2 1
1.39605 0.220568 0.220568 2 2 1
1.39719 0.220969 0.220969 2 2 1
1.39832 0.221369 0.221369 2 2 1
1.39946 0.221771 0.221771 2 2 1
1.4006 0.222172 0.222172 2 2 1
1.40174 0.222574 0.222574 2 2 1
1.40288 0.222975 0.222975 2 2 1
1.40402 0.223378 0.223378 2 2 1
1.40516 0.22378 0.22378 2 2 1
1.4063 0.224183 0.224183 2 2 1
1.40744 0.224586 0.224586 2 2 1
1.40859 0.224989 0.224989 2 2 1
1.40973 0.225393 0.225393 2 2 1
1.41088 0.225797 0.225797 2 2 1
1.41202 0.226201 0.226201 2 2 1
1.41317 0.226605 0.226605 2 2 1
1.41432 0.22701 0.22701 2 2 1
1.41546 0.227415 0.227415 2 2 1
1.41661 0.22782 0.22782 2 2 1
1.41776 0.228226 0.228226 2 2 1
1.41891 0.228632 0.228632 2 2 1
1.42007 0.229038 0.229038 2 2 1
1.42122 0.229444 0.229444 2 2 1
1.42237 0.229851 0.229851 2 2 1
1.42353 0.230258 0.230258 2 2 1
1.42468 0.230665 0.230665 2 2 1
1.42584 0.231073 0.231073 2 2 1
1.42699 0.231481 0.231481 2 2 1
1.42815 0.231889 0.231889 2 2 1
1.42931 0.232297 0.232297 2 2 1
1.43047 0.232706 0.232706 2 2 1
1.43163 0.233115 0.233115 2 2 1
1.43279 0.233524 0.233524 2 2 1
1.43395 0.233934 0.233934 2 2 1
1.43511 0.234344 0.234344 2 2 1
1.43627 0.234754 0.234754 2 2 1
1.43744 0.235164 0.235164 2 2 1
1.4386 0.235575 0.235575 2 2 1
1.43977 0.235986 0.235986 2 2 1
1.44093 0.236398 0.236398 2 2 1
1.4421 0.236809 0.236809 2 2 1
1.44327 0.237221 0.237221 2 2 1
1.44443 0.237633 0.237633 2 2 1
1.4456 0.238046 0.238046 2 2 1
1.44677 0.238459 0.238459 2 2 1
1.44795 0.238872 0.238872 2 2 1
1.44912 0.239285 0.239285 2 2 1
1.45029 0.239699 0.239699 2 2 1
1.45146 0.240113 0.240113 2 2 1
1.45264 0.240527 0.240527 2 2 1
1.45381 0.240941 0.240941 2 2 1
1.45499 0.241356 0.241356 2 2 1
1.45617 0.241771 0.241771 2 2 1
1.45734 0.242187 0.242187 2 2 1
1.45852 0.242602 0.242602 2 2 1
1.4597 0.243018 0.243018 2 2 1
1.46088 0.243435 0.243435 2 2 1
1.46206 0.243851 0.243851 2 2 1
1.46324 0.244268 0.244268 2 2 1
1.46443 0.244685 0.244685 2 2 1
1.46561 0.245103 0.245103 2 2 1
1.4668 0.24552 0.24552 2 2 1
1.46798 0.245939 0.245939 2 2 1
1.46917 0.246357 0.246357 2 2 1
1.47035 0.246776 0.246776 2 2 1
1.47154 0.247195 0.247195 2 2 1
1.47273 0.247614 0.247614 2 2 1
1.47392 0.248033 0.248033 2 2 1
1.47511 0.248453 0.248453 2 2 1
1.4763 0.248873 0.248873 2 2 1
1.47749 0.249294 0.249294 2 2 1
1.47869 0.249715 0.249715 2 2 1
1.47988 0.250136 0.250136 2 2 1
1.48107 0.250557 0.250557 2 2 1
1.48227 0.250979 0.250979 2 2 1
1.48347 0.251401 0.251401 2 2 1
1.48466 0.251823 0.251823 2 2 1
1.48586 0.252245 0.252245 2 2 1
1.48706 0.252668 0.252668 2 2 1
1.48826 0.253091 0.253091 2 2 1
1.48946 0.253515 0.253515 2 2 1
1.49066 0.253939 0.253939 2 2 1
1.49186 0.254363 0.254363 2 2 1
1.49307 0.254787 0.254787 2 2 1
1.49427 0.255212 0.255212 2 2 1
1.49548 0.255637 0.255637 2 2 1
1.49668 0.256062 0.256062 2 2 1
1.49789 0.256488 0.256488 2 2 1
1.4991 0.256913 0.256913 2 2 1
1.5003 0.25734 0.25734 2 2 1
1.50151 0.257766 0.257766 2 2 1
1.50272 0.258193 0.258193 2 2 1
1.50393 0.25862 0.25862 2 2 1
1.50515 0.259048 0.259048 2 2 1
1.50636 0.259475 0.259475 2 2 1
1.50757 0.259903 0.259903 2 2 1
1.50879 0.260332 0.260332 2 2 1
1.51 0.26076 0.26076 2 2 1
1.51122 0.261189 0.261189 2 2 1
1.51244 0.261619 0.261619 2 2 1
1.51365 0.262048 0.262048 2 2 1
1.51487 0.262478 0.262478 2 2 1
1.51609 0.262908 0.262908 2 2 1
1.51731 0.263339 0.263339 2 2 1
1.51853 0.26377 0.26377 2 2 1
1.51976 0.264201 0.264201 2 2 1
1.52098 0.264632 0.264632 2 2 1
1.5222 0.265064 0.265064 2 2 1
1.52343 0.265496 0.265496 2 2 1
1.52465 0.265928 0.265928 2 2 1
1.52588 0.266361 0.266361 2 2 1
1.52711 0.266794 0.266794 2 2 1
1.52834 0.267227 0.267227 2 2 1
1.52957 0.267661 0.267661 2 2 1
1.5308 0.268095 0.268095 2 2 1
1.53203 0.268529 0.268529 2 2 1
1.53326 0.268964 0.268964 2 2 1
1.53449 0.269399 0.269399 2 2 1
1.53573 0.269834 0.269834 2 2 1
1.53696 0.270269 0.270269 2 2 1
1.5382 0.270705 0.270705 2 2 1
1.53943 0.271141 0.271141 2 2 1
1.54067 0.271578 0.271578 2 2 1
1.54191 0.272015 0.272015 2 2 1
1.54315 0.272452 0.272452 2 2 1
1.54439 0.272889 0.272889 2 2 1
1.54563 0.273327 0.273327 2 2 1
1.54687 0.273765 0.273765 2 2 1
1.54811 0.274203 0.274203 2 2 1
1.54936 0.274642 0.274642 2 2 1
1.5506 0.275081 0.275081 2 2 1
1.55185 0.27552 0.27552 2 2 1
1.5531 0.27596 0.27596 2 2 1
1.55434 0.2764 0.2764 2 2 1
1.55559 0.27684 0.27684 2 2 1
1.55684 0.277281 0.277281 2 2 1
1.55809 0.277722 0.277722 2 2 1
1.55934 0.278163 0.278163 2 2 1
1.56059 0.278605 0.278605 2 2 1
1.56185 0.279047 0.279047 2 2 1
1.5631 0.279489 0.279489 2 2 1
1.56435 0.279932 0.279932 2 2 1
1.56561 0.280374 0.280374 2 2 1
1.56687 0.280818 0.280818 2 2 1
1.56812 0.281261 0.281261 2 2 1
1.56938 0.281705 0.281705 2 2 1
1.57064 0.282149 0.282149 2 2 1
1.5719 0.282594 0.282594 2 2 1
1.57316 0.283039 0.283039 2 2 1
1.57443 0.283484 0.283484 2 2 1
1.57569 0.283929 0.283929 2 2 1
1.57695 0.284375 0.284375 2 2 1
1.57822 0.284821 0.284821 2 2 1
1.57948 0.285268 0.285268 2 2 1
1.58075 0.285714 0.285714 2 2 1
1.58202 0.286161 0.286161 2 2 1
1.58329 0.286609 0.286609 2 2 1
1.58456 0.287057 0.287057 2 2 1
1.58583 0.287505 0.287505 2 2 1
1.5871 0.287953 0.287953 2 2 1
1.58837 0.288402 0.288402 2 2 1
1.58964 0.288851 0.288851 2 2 1
1.59092 0.289301 0.289301 2 2 1
1.59219 0.28975 0.28975 2 2 1
1.59347 0.2902 0.2902 2 2 1
1.59474 0.290651 0.290651 2 2 1
1.59602 0.291102 0.291102 2 2 1
1.5973 0.291553 0.291553 2 2 1
1.59858 0.292004 0.292004 2 2 1
1.59986 0.292456 0.292456 2 2 1
1.60114 0.292908 0.292908 2 2 1
1.60243 0.29336 0.29336 2 2 1
1.60371 0.293813 0.293813 2 2 1
1.60499 0.294266 0.294266 2 2 1
1.60628 0.29472 0.29472 2 2 1
1.60757 0.295173 0.295173 2 2 1
1.60885 0.295627 0.295627 2 2 1
1.61014 0.296082 0.296082 2 2 1
1.61143 0.296537 0.296537 2 2 1
1.61272 0.296992 0.296992 2 2 1
1.61401 0.297447 0.297447 2 2 1
1.61531 0.297903 0.297903 2 2 1
1.6166 0.298359 0.298359 2 2 1
1.61789 0.298816 0.298816 2 2 1
1.61919 0.299272 0.299272 2 2 1
1.62048 0.299729 0.299729 2 2 1
1.62178 0.300187 0.300187 2 2 1
1.62308 0.300645 0.300645 2 2 1
1.62438 0.301103 0.301103 2 2 1
1.62568 0.301561 0.301561 2 2 1
1.62698 0.30202 0.30202 2 2 1
1.62828 0.302479 0.302479 2 2 1
1.62958 0.302939 0.302939 2 2 1
1.63089 0.303399 0.303399 2 2 1
1.63219 0.303859 0.303859 2 2 1
1.6335 0.30432 0.30432 2 2 1
1.6348 0.304781 0.304781 2 2 1
1.63611 0.305242 0.305242 2 2 1
1.63742 0.305703 0.305703 2 2 1
1.63873 0.306165 0.306165 2 2 1
1.64004 0.306628 0.306628 2 2 1
1.64135 0.30709 0.30709 2 2 1
1.64267 0.307553 0.307553 2 2 1
1.64398 0.308016 0.308016 2 2 1
1.64529 0.30848 0.30848 2 2 1
1.64661 0.308944 0.308944 2 2 1
1.64793 0.309408 0.309408 2 2 1
1.64924 0.309873 0.309873 2 2 1
1.65056 0.310338 0.310338 2 2 1
1.65188 0.310804 0.310804 2 2 1
1.6532 0.311269 0.311269 2 2 1
1.65452 0.311735 0.311735 2 2 1
1.65584 0.312202 0.312202 2 2 1
1.65717 0.312669 0.312669 2 2 1
1.65849 0.313136 0.313136 2 2 1
1.65982 0.313603 0.313603 2 2 1
1.66114 0.314071 0.314071 2 2 1
1.66247 0.314539 0.314539 2 2 1
1.6638 0.315008 0.315008 2 2 1
1.66513 0.315477 0.315477 2 2 1
1.66646 0.315946 0.315946 2 2 1
1.66779 0.316416 0.316416 2 2 1
1.66912 0.316886 0.316886 2 2 1
1.67046 0.317356 0.317356 2 2 1
1.67179 0.317827 0.317827 2 2 1
1.67313 0.318298 0.318298 2 2 1
1.67446 0.318769 0.318769 2 2 1
1.6758 0.319241 0.319241 2 2 1
1.67714 0.319713 0.319713 2 2 1
1.67848 0.320185 0.320185 2 2 1
1.67982 0.320658 0.320658 2 2 1
1.68116 0.321131 0.321131 2 2 1
1.6825 0.321605 0.321605 2 2 1
1.68385 0.322079 0.322079 2 2 1
1.68519 0.322553 0.322553 2 2 1
1.68654 0.323028 0.323028 2 2 1
1.68788 0.323503 0.323503 2 2 1
1.68923 0.323978 0.323978 2 2 1
1.69058 0.324454 0.324454 2 2 1
1.69193 0.32493 0.32493 2 2 1
1.69328 0.325406 0.325406 2 2 1
1.69463 0.325883 0.325883 2 2 1
1.69598 0.32636 0.32636 2 2 1
1.69734 0.326837 0.326837 2 2 1
1.69869 0.327315 0.327315 2 2 1
1.70005 0.327793 0.327793 2 2 1
1.70141 0.328272 0.328272 2 2 1
1.70276 0.328751 0.328751 2 2 1
1.70412 0.32923 0.32923 2 2 1
1.70548 0.32971 0.32971 2 2 1
1.70684 0.33019 0.33019 2 2 1
1.7082 0.33067 0.33067 2 2 1
1.70957 0.331151 0.331151 2 2 1
1.71093 0.331632 0.331632 2 2 1
1.7123 0.332114 0.332114 2 2 1
1.71366 0.332596 0.332596 2 2 1
1.71503 0.333078 0.333078 2 2 1
1.7164 0.33356 0.33356 2 2 1
1.71777 0.334043 0.334043 2 2 1
1.71914 0.334527 0.334527 2 2 1
1.72051 0.33501 0.33501 2 2 1
1.72188 0.335495 0.335495 2 2 1
1.72326 0.335979 0.335979 2 2 1
1.72463 0.336464 0.336464 2 2 1
1.72601 0.336949 0.336949 2 2 1
1.72738 0.337435 0.337435 2 2 1
